# .PCD v0.7 - Point Cloud Data file format
VERSION 0.7
FIELDS x y z intensity
SIZE 4 4 4 4
TYPE F F F F
COUNT 1 1 1 1
WIDTH 1770
HEIGHT 1
VIEWPOINT 0 0 0 1 0 0 0
POINTS 1770
DATA ascii
21.546001 5.0279999 -0.31799999 53
21.406 5.1259999 -0.31600001 50
21.219999 5.2119999 -0.31400001 52
21.106001 5.3140001 -0.31200001 48
20.938 5.402 -0.31 49
20.803999 5.4959998 -0.308 50
20.629999 5.5780001 -0.30599999 53
20.52 5.6759996 -0.30399999 53
20.418001 5.7759995 -0.30399999 49
15.738001 4.552 -0.234 40
15.66 4.6279998 -0.23200001 38
15.585999 4.704 -0.23200001 32
15.46 4.7639999 -0.23 39
15.37 4.8340001 -0.23 37
15.238001 4.8899999 -0.22799999 42
15.172 4.9660001 -0.22600001 37
15.15 5.0580001 -0.22600001 42
15.2 5.1719999 -0.22799999 33
15.268001 5.2940001 -0.23 39
15.324 5.414 -0.23 32
15.404 5.5440001 -0.23200001 39
15.478001 5.6719999 -0.234 29
15.548 5.8000002 -0.234 37
18.314001 6.9540005 -0.278 38
18.232 7.0440001 -0.27599999 45
18.134001 7.1279998 -0.27599999 53
17.982 7.1879997 -0.27399999 58
17.894001 7.2740002 -0.27200001 51
17.758001 7.3400002 -0.27000001 63
17.664 7.4219999 -0.27000001 45
17.524 7.4820004 -0.26800001 61
17.435999 7.5640001 -0.26800001 48
17.298 7.6240001 -0.266 59
17.194 7.698 -0.264 58
17.054001 7.7559996 -0.26199999 63
16.972 7.8379998 -0.26199999 57
16.848 7.9000001 -0.25999999 66
16.756001 7.9759998 -0.25999999 57
16.624001 8.0320005 -0.25799999 74
16.542 8.1120005 -0.25799999 54
16.411999 8.1659994 -0.25600001 71
16.314001 8.2360001 -0.25400001 46
16.181999 8.2880001 -0.25400001 56
16.081999 8.3559999 -0.252 39
12.51 6.592 -0.19600001 59
12.406 6.6300001 -0.19600001 45
12.32 6.6759996 -0.19399999 68
12.258 6.7359996 -0.19399999 52
12.164001 6.7759995 -0.192 73
12.096 6.8320003 -0.192 53
11.998 6.868 -0.19 73
11.941999 6.9299998 -0.19 52
11.888 6.9899998 -0.19 52
11.891999 7.086 -0.19 35
11.926 7.2020001 -0.192 36
11.992 7.336 -0.19399999 35
12.084001 7.4899998 -0.19600001 36
12.16 7.6359997 -0.19600001 35
12.226 7.7779999 -0.198 45
14.466 9.3220005 -0.236 31
14.386 9.3900003 -0.234 62
14.314 9.4619999 -0.234 42
14.202 9.5059996 -0.234 68
14.132 9.5799999 -0.23200001 45
14.024 9.6259995 -0.23200001 70
13.944 9.6920004 -0.23 45
13.824 9.7279997 -0.23 74
13.75 9.7980003 -0.23 45
13.644 9.842 -0.22799999 71
13.57 9.9099998 -0.22799999 51
13.458 9.9499998 -0.22600001 64
13.394 10.024 -0.22600001 48
13.29 10.068 -0.22399999 66
13.21 10.13 -0.22399999 41
13.094 10.162 -0.222 70
13.03 10.234 -0.222 42
12.934 10.282 -0.222 60
12.864 10.351999 -0.222 42
12.764 10.394 -0.22 39
12.698001 10.464001 -0.22 47
12.625999 10.53 -0.22 58
12.576 10.614 -0.22 60
12.5 10.674 -0.21799999 92
12.436 10.745999 -0.21799999 56
12.351999 10.801999 -0.21799999 84
12.28 10.866 -0.21799999 41
12.172 10.898001 -0.21600001 70
12.088 10.952 -0.21600001 40
12.056 11.051999 -0.21600001 79
9.2080002 8.5419998 -0.16600001 55
9.1259995 8.566 -0.16399999 85
9.0780001 8.6199999 -0.16399999 58
9.0139999 8.6599998 -0.16399999 85
8.9619999 8.7119999 -0.16399999 54
8.8859997 8.7420006 -0.162 84
8.8319998 8.7919998 -0.162 53
8.7600002 8.8220005 -0.162 93
8.6999998 8.8660002 -0.162 54
8.6199999 8.8879995 -0.16 98
8.566 8.9359999 -0.16 53
8.5539999 9.0299997 -0.16 56
8.5840006 9.1700001 -0.162 25
8.6540003 9.3540001 -0.16399999 33
10.734 11.738001 -0.204 30
10.632 11.766 -0.204 61
10.514 11.774 -0.20200001 51
10.42 11.808001 -0.20200001 81
10.354 11.874001 -0.20200001 43
10.434 12.108001 -0.204 51
10.544001 12.382 -0.20799999 19
10.854 12.9 -0.214 11
11.264 13.548 -0.22399999 9
11.386 13.86 -0.22799999 10
12.212 15.046 -0.24600001 8
12.208 15.224 -0.24600001 10
13.112 16.549999 -0.266 7
13.204 16.870001 -0.27000001 30
14.184 18.341999 -0.292 24
14.106 18.468 -0.292 34
14.04 18.605999 -0.292 24
13.96 18.73 -0.292 11
13.858001 18.823999 -0.292 7
13.686 18.823999 -0.28999999 14
13.546 18.864 -0.28999999 22
13.458 18.978001 -0.28999999 55
26.316002 37.577999 -0.56999999 88
0 0 0 4
0 0 0 5
8.7399998 12.964001 -0.192 24
8.6379995 12.978001 -0.192 45
8.5760002 13.051999 -0.192 77
8.5220003 13.138 -0.192 57
8.4460001 13.194 -0.192 86
8.3719997 13.25 -0.192 63
8.276 13.271999 -0.19 104
8.1879997 13.306 -0.19 96
8.1020002 13.344 -0.19 110
8.0359993 13.412 -0.18799999 96
7.96 13.468 -0.18799999 86
7.8840003 13.52 -0.18799999 79
0 0 0 7
0 0 0 65
1.454 -2.494 -0.02 66
1.474 -2.494 -0.02 52
1.518 -2.536 -0.02 53
1.5519999 -2.5580001 -0.02 49
1.58 -2.5679998 -0.022 55
1.5780001 -2.5320001 -0.02 60
1.594 -2.5220001 -0.02 48
1.622 -2.5339999 -0.022 47
1.6719999 -2.5799999 -0.022 34
1.71 -2.6039999 -0.022 33
1.758 -2.6420002 -0.022 34
1.7939999 -2.6620002 -0.022 39
1.842 -2.698 -0.024 41
1.878 -2.714 -0.024 41
1.9239999 -2.7479999 -0.024 39
1.964 -2.77 -0.024 40
2.0080001 -2.796 -0.024 41
2.04 -2.8039999 -0.025999999 52
2.0799999 -2.826 -0.025999999 47
2.128 -2.8539999 -0.025999999 70
4.1900001 -5.5540004 -0.051999997 59
4.1919999 -5.4879999 -0.051999997 81
4.1879997 -5.4159999 -0.050000001 64
4.1859999 -5.348 -0.050000001 79
4.21 -5.3140001 -0.050000001 55
4.2339997 -5.2800002 -0.050000001 68
4.2600002 -5.25 -0.050000001 48
4.2800002 -5.21 -0.050000001 67
4.3060002 -5.1799998 -0.050000001 48
4.3280001 -5.1440001 -0.050000001 68
4.3559999 -5.1160002 -0.050000001 49
4.3779998 -5.0799999 -0.050000001 80
4.4060001 -5.0500002 -0.050000001 60
4.4260001 -5.0139999 -0.050000001 95
4.4499998 -4.9820004 -0.050000001 68
4.4660001 -4.9419999 -0.050000001 102
4.4899998 -4.9099998 -0.050000001 68
4.5100002 -4.8740001 -0.050000001 103
4.5360003 -4.8439999 -0.050000001 64
4.5539999 -4.8060002 -0.050000001 97
4.5780001 -4.776 -0.050000001 63
4.5999999 -4.7420001 -0.050000001 96
4.6240001 -4.7119999 -0.050000001 65
4.6420002 -4.6760001 -0.050000001 103
4.6659999 -4.6440001 -0.050000001 66
4.6859999 -4.6100001 -0.050000001 105
4.7160001 -4.5840001 -0.050000001 57
4.7620001 -4.5760002 -0.051999997 77
4.8179998 -4.5739999 -0.051999997 41
4.9039998 -4.6040001 -0.051999997 45
5.0539999 -4.6879997 -0.054000001 36
5.2059999 -4.7720003 -0.055999998 58
5.3080001 -4.8080001 -0.055999998 42
7.6999998 -6.8940001 -0.081999995 86
7.7559996 -6.8640003 -0.081999995 53
7.7979999 -6.8179998 -0.081999995 98
7.842 -6.7759995 -0.081999995 63
7.868 -6.7199998 -0.081999995 101
7.9059997 -6.6719999 -0.081999995 62
7.934 -6.6159997 -0.081999995 103
7.9699998 -6.5679998 -0.081999995 48
8.066 -6.5679998 -0.081999995 68
8.2459993 -6.6340003 -0.083999999 41
11.078 -8.8059998 -0.11399999 51
11.136 -8.7480001 -0.11399999 43
11.18 -8.6759996 -0.11399999 72
11.26 -8.632 -0.11399999 37
11.391999 -8.6280003 -0.116 54
11.524 -8.6240005 -0.116 24
11.644 -8.6079998 -0.116 27
11.694 -8.54 -0.118 20
15.294001 -11.032 -0.152 12
15.34 -10.93 -0.152 12
15.418 -10.85 -0.154 12
0 0 0 3
0 0 0 5
0 0 0 5
0 0 0 5
11.99 -7.9240003 -0.118 26
12.014 -7.8400002 -0.118 25
12.046 -7.7620001 -0.118 32
12.328 -7.842 -0.12 51
12.338 -7.7479997 -0.12 57
12.39 -7.6799998 -0.12 107
12.452 -7.618 -0.12 81
12.506 -7.5500002 -0.12 105
12.534 -7.4699998 -0.12 61
12.551999 -7.382 -0.12 53
16.248001 -9.4279995 -0.156 29
16.304001 -9.3340006 -0.156 26
16.398001 -9.2600002 -0.156 18
0 0 0 3
0 0 0 2
0 0 0 3
12.89 -6.888 -0.122 15
12.926 -6.8120003 -0.122 34
12.94 -6.7220001 -0.122 36
12.994 -6.6540003 -0.122 37
13.05 -6.5879998 -0.122 30
13.051999 -6.4940004 -0.122 15
0 0 0 3
0 0 0 3
0 0 0 3
0 0 0 3
0 0 0 3
0 0 0 3
0 0 0 3
0 0 0 3
13.561999 -5.8840003 -0.124 18
13.54 -5.7820001 -0.124 45
13.474 -5.6599998 -0.122 19
13.388 -5.5340004 -0.122 55
13.33 -5.4179997 -0.122 22
13.348001 -5.336 -0.122 32
13.401999 -5.2659998 -0.122 27
13.454 -5.198 -0.122 31
13.478001 -5.1160002 -0.122 28
13.526 -5.046 -0.122 31
13.57 -4.9720001 -0.122 23
13.69 -4.9260001 -0.124 22
13.828 -4.8860002 -0.124 23
14.004001 -4.8559999 -0.126 21
14.088 -4.7940001 -0.126 24
0 0 0 4
0 0 0 0
0 0 0 0
0 0 0 3
0 0 0 4
0 0 0 4
0 0 0 3
0 0 0 3
14.502 -4.1020002 -0.12800001 17
14.538 -4.0220003 -0.12800001 26
14.588 -3.944 -0.13 34
14.628 -3.8639998 -0.13 29
0 0 0 3
0 0 0 3
0 0 0 3
0 0 0 3
0 0 0 3
0 0 0 3
0 0 0 3
0 0 0 3
15.141999 -3.164 -0.132 20
15.148001 -3.0739999 -0.132 28
15.178 -2.9879999 -0.132 35
15.204 -2.9020002 -0.132 32
0 0 0 3
0 0 0 4
0 0 0 4
0 0 0 4
0 0 0 4
0 0 0 4
0 0 0 4
0 0 0 4
15.894 -2.1800001 -0.138 25
15.81 -2.076 -0.138 27
15.822 -1.984 -0.138 28
15.83 -1.892 -0.138 31
0 0 0 5
0 0 0 6
0 0 0 6
0 0 0 7
0 0 0 4
0 0 0 4
0 0 0 4
0 0 0 4
16.435999 -1.098 -0.142 34
16.408001 -1 -0.142 53
16.428001 -0.90400004 -0.142 60
16.331999 -0.80400002 -0.142 43
16.25 -0.70599997 -0.14 43
16.139999 -0.60799998 -0.14 19
16.194 -0.514 -0.14 26
16.265999 -0.42200002 -0.14 18
16.368 -0.33000001 -0.14 17
16.408001 -0.236 -0.14 15
16.478001 -0.142 -0.142 16
16.658001 -0.046 -0.142 18
22.936001 0.064000003 -0.19600001 17
22.926001 0.19600001 -0.19600001 19
22.768 0.32799998 -0.19600001 20
22.578001 0.45599997 -0.19399999 20
22.353998 0.57999998 -0.19399999 21
22.146002 0.704 -0.192 20
22.142 0.83399999 -0.192 25
21.914 0.95199996 -0.19 18
21.43 1.056 -0.186 22
21.424 1.1799999 -0.186 17
21.222 1.2919999 -0.184 17
21.018 1.4039999 -0.18200001 17
20.691999 1.502 -0.18000001 17
20.566002 1.614 -0.17799999 19
20.482 1.7260001 -0.17799999 19
20.496 1.848 -0.17799999 19
18.048 1.732 -0.156 17
18.1 1.844 -0.15800001 16
19.774 2.1300001 -0.17200001 14
19.648001 2.2319999 -0.17 14
19.030001 2.2739999 -0.16600001 14
18.903999 2.3699999 -0.16399999 14
18.860001 2.4760001 -0.16399999 14
18.790001 2.5779998 -0.16399999 23
18.741999 2.6820002 -0.16399999 39
18.625999 2.776 -0.162 48
18.538 2.8739998 -0.162 65
18.452 2.97 -0.162 67
18.434 3.076 -0.16 72
18.466 3.1920002 -0.162 74
18.52 3.312 -0.162 72
18.605999 3.4400001 -0.162 67
18.678001 3.566 -0.16399999 68
18.76 3.694 -0.16399999 60
18.812 3.8179998 -0.16600001 56
18.83 3.9360001 -0.16600001 58
21.969999 4.724 -0.19399999 57
21.83 4.8280001 -0.192 59
21.719999 4.9359999 -0.192 62
21.546001 5.0279999 -0.19 62
21.406 5.1259999 -0.18799999 59
21.219999 5.2119999 -0.18799999 62
21.113998 5.316 -0.186 60
20.946001 5.4040003 -0.186 64
20.812 5.4979997 -0.184 67
20.632 5.5799999 -0.18200001 68
20.523998 5.678 -0.18200001 67
20.403999 5.7720003 -0.18200001 60
15.726 4.5479999 -0.14 55
15.66 4.6279998 -0.14 49
15.591999 4.7059999 -0.138 46
15.466 4.7660003 -0.138 50
15.372 4.8340001 -0.138 46
15.234 4.8899999 -0.13600001 57
15.168 4.9660001 -0.13600001 45
15.146 5.0560002 -0.13600001 55
15.19 5.1679997 -0.13600001 43
15.256 5.29 -0.138 48
15.311999 5.4099998 -0.138 44
15.394 5.54 -0.138 47
15.466 5.6659999 -0.14 38
15.53 5.7920003 -0.14 58
18.302 6.948 -0.16600001 43
18.234001 7.0440001 -0.16600001 75
18.134001 7.1259999 -0.16399999 58
17.984001 7.1879997 -0.16399999 77
17.898001 7.2759995 -0.16399999 59
17.761999 7.342 -0.162 76
17.664 7.4200001 -0.162 58
17.521999 7.48 -0.16 80
17.434 7.5640001 -0.16 60
17.299999 7.6259999 -0.16 87
17.200001 7.7020001 -0.15800001 70
17.058001 7.7559996 -0.15800001 92
16.976 7.8400002 -0.156 71
16.851999 7.902 -0.156 92
16.761999 7.9779997 -0.156 68
16.625999 8.0320005 -0.154 91
16.544001 8.1120005 -0.154 68
16.418001 8.1680002 -0.154 89
16.323999 8.2420006 -0.152 67
16.191999 8.2919998 -0.152 79
16.076 8.3520002 -0.15000001 65
16.032 8.448 -0.15000001 88
12.374001 6.612 -0.116 67
12.328 6.6799998 -0.116 106
12.27 6.7420001 -0.116 69
12.172 6.7800002 -0.116 106
12.101999 6.8340001 -0.11399999 72
12 6.868 -0.11399999 103
11.952 6.934 -0.11399999 68
11.894 6.9940004 -0.11399999 82
11.898001 7.0900002 -0.11399999 42
11.922 7.198 -0.11399999 59
11.984 7.3320003 -0.116 32
12.076 7.4840002 -0.116 53
12.141999 7.6240001 -0.118 31
12.21 7.7659998 -0.118 71
14.446 9.3079996 -0.14 38
14.4 9.3979998 -0.14 94
14.326 9.4700003 -0.14 57
14.212 9.5139999 -0.14 97
14.146 9.5880003 -0.14 59
14.034 9.6339998 -0.138 104
13.955999 9.6999998 -0.138 64
13.832 9.7340002 -0.138 109
13.764 9.8059998 -0.138 64
13.66 9.8540001 -0.13600001 108
13.585999 9.9219999 -0.13600001 61
13.474 9.96 -0.13600001 108
13.41 10.034 -0.13600001 58
13.304 10.078 -0.134 107
13.224 10.14 -0.134 58
13.108001 10.172 -0.134 108
13.044001 10.245999 -0.134 59
12.95 10.296 -0.132 92
12.875999 10.358001 -0.132 38
12.78 10.406 -0.132 51
12.716 10.478001 -0.132 33
12.65 10.548 -0.132 75
12.591999 10.625999 -0.132 66
12.511999 10.686 -0.13 130
12.45 10.758 -0.13 76
12.375999 10.822 -0.13 90
12.306 10.89 -0.13 43
12.188001 10.912 -0.13 67
12.101999 10.964001 -0.13 42
11.998 10.998 -0.12800001 110
9.1680002 8.5040007 -0.098000005 72
9.1379995 8.5760002 -0.098000005 136
9.0900002 8.632 -0.098000005 76
9.026 8.6719999 -0.098000005 136
8.9759998 8.7259998 -0.098000005 73
8.8999996 8.7559996 -0.098000005 127
8.8500004 8.8079996 -0.098000005 74
8.776 8.8380003 -0.096000001 133
8.7159996 8.8800001 -0.096000001 80
8.632 8.8999996 -0.096000001 143
8.5780001 8.9499998 -0.096000001 76
8.5600004 9.0340004 -0.096000001 93
8.5740004 9.158 -0.096000001 33
8.5939999 9.2880001 -0.098000005 45
10.736 11.74 -0.122 23
10.6 11.73 -0.122 82
10.524 11.784 -0.122 50
10.431999 11.82 -0.12 115
10.368 11.888 -0.12 56
10.43 12.101999 -0.122 66
10.528001 12.362 -0.124 25
10.604 12.601999 -0.126 11
11.042 13.28 -0.132 9
11.23 13.67 -0.134 11
12.158001 14.978001 -0.146 9
12.151999 15.151999 -0.148 10
13.056 16.478001 -0.15800001 8
13.068001 16.694 -0.16 41
14.186 18.344 -0.17399999 27
14.108001 18.469999 -0.17399999 47
14.044001 18.612 -0.176 26
13.962 18.732 -0.176 14
13.858001 18.821999 -0.17399999 8
13.684 18.818001 -0.17399999 16
13.548 18.865999 -0.17399999 29
13.428 18.934 -0.17200001 49
0 0 0 6
0 0 0 6
0 0 0 7
8.6719999 12.862 -0.11399999 30
8.6099997 12.936 -0.11399999 61
8.5699997 13.044001 -0.11399999 119
8.5139999 13.128 -0.11399999 80
8.4379997 13.18 -0.11399999 154
8.3640003 13.238001 -0.11399999 107
8.2659998 13.254001 -0.11399999 213
8.1759996 13.284 -0.11399999 201
8.0880003 13.318001 -0.112 215
8.0240002 13.391999 -0.112 185
7.9499998 13.448001 -0.112 130
7.8720002 13.5 -0.112 84
0 0 0 7
0 0 0 61
1.464 -2.51 -0.0060000001 62
1.482 -2.51 -0.0060000001 52
1.526 -2.5480001 -0.0060000001 57
1.5599999 -2.5679998 -0.0060000001 55
1.5860001 -2.5799999 -0.0060000001 59
1.5880001 -2.5480001 -0.0060000001 67
1.604 -2.5380001 -0.0060000001 49
1.628 -2.5439999 -0.0060000001 53
1.678 -2.5879998 -0.0060000001 35
1.7160001 -2.6120002 -0.0060000001 38
1.7639999 -2.6500001 -0.0060000001 35
1.8 -2.6700001 -0.0060000001 42
1.8460001 -2.704 -0.0080000004 43
1.882 -2.724 -0.0080000004 44
1.928 -2.7539999 -0.0080000004 41
1.9680001 -2.776 -0.0080000004 45
2.0120001 -2.802 -0.0080000004 44
2.0439999 -2.8099999 -0.0080000004 58
2.082 -2.8279998 -0.0080000004 51
2.1239998 -2.8499999 -0.0080000004 69
4.1900001 -5.552 -0.016000001 61
4.184 -5.4779997 -0.016000001 68
4.1820002 -5.408 -0.016000001 62
4.1799998 -5.3400002 -0.016000001 57
4.2079997 -5.3120003 -0.016000001 38
4.2320004 -5.2779999 -0.016000001 37
4.2600002 -5.2479997 -0.016000001 23
4.276 -5.2040005 -0.016000001 30
4.302 -5.1740003 -0.016000001 23
4.322 -5.1359997 -0.016000001 29
4.3559999 -5.1139998 -0.016000001 24
4.3759999 -5.0760002 -0.016000001 41
4.402 -5.0479999 -0.016000001 43
4.4179997 -5.0039997 -0.016000001 65
4.4400001 -4.9720001 -0.016000001 61
4.4559999 -4.9320002 -0.016000001 82
4.4820004 -4.9000001 -0.016000001 64
4.5020003 -4.8639998 -0.016000001 86
4.526 -4.8340001 -0.016000001 58
4.5440001 -4.796 -0.016000001 86
4.5700002 -4.7660003 -0.016000001 58
4.5900002 -4.7320004 -0.016000001 84
4.6160002 -4.7020001 -0.016000001 60
4.632 -4.664 -0.016000001 84
4.6560001 -4.6339998 -0.016000001 61
4.6760001 -4.598 -0.016000001 84
4.7059999 -4.5739999 -0.016000001 54
4.7520003 -4.5640001 -0.016000001 64
4.8080001 -4.5640001 -0.016000001 38
4.8959999 -4.5939999 -0.016000001 39
5.0479999 -4.6820002 -0.017999999 32
5.2679996 -4.8280001 -0.017999999 47
5.336 -4.8340001 -0.017999999 37
7.71 -6.9040003 -0.025999999 70
7.7440004 -6.8520002 -0.025999999 51
7.7840004 -6.8059998 -0.025999999 81
7.8280001 -6.7640004 -0.025999999 63
7.8520002 -6.7040005 -0.025999999 84
7.8899999 -6.658 -0.025999999 59
7.914 -6.5999999 -0.025999999 84
7.9540005 -6.5540004 -0.025999999 47
8.0500002 -6.5540004 -0.025999999 61
8.2059994 -6.6020002 -0.027999999 38
11.112 -8.8319998 -0.037999999 43
11.128 -8.7399998 -0.037999999 36
11.158001 -8.6599998 -0.037999999 50
11.245999 -8.6240005 -0.037999999 32
11.378 -8.6199999 -0.037999999 39
11.52 -8.6199999 -0.037999999 21
11.65 -8.6120005 -0.037999999 21
11.81 -8.6240005 -0.037999999 18
15.306 -11.04 -0.050000001 11
15.378 -10.955999 -0.050000001 12
15.436 -10.862 -0.050000001 13
0 0 0 2
0 0 0 4
0 0 0 4
20.24 -13.548 -0.066 45
20.428001 -13.502 -0.066 42
20.469999 -13.358001 -0.066 42
20.365999 -13.122 -0.066 34
12.244 -7.7880001 -0.037999999 47
12.301999 -7.7240005 -0.039999999 43
12.372 -7.6700001 -0.039999999 75
12.44 -7.6100001 -0.039999999 50
12.49 -7.5420003 -0.039999999 72
12.546 -7.4759998 -0.039999999 35
12.572 -7.3920002 -0.039999999 37
16.290001 -9.4519997 -0.051999997 25
16.309999 -9.3359995 -0.051999997 22
16.370001 -9.2459993 -0.051999997 19
0 0 0 3
0 0 0 3
0 0 0 3
13.264 -7.0879998 -0.039999999 20
12.918 -6.8059998 -0.039999999 34
12.94 -6.7220001 -0.039999999 32
13.006 -6.6599998 -0.039999999 35
13.06 -6.5940003 -0.039999999 23
0 0 0 4
0 0 0 4
0 0 0 4
0 0 0 4
0 0 0 4
0 0 0 4
0 0 0 4
0 0 0 4
0 0 0 4
0 0 0 4
13.53 -5.7759995 -0.039999999 28
13.47 -5.658 -0.039999999 21
13.38 -5.5300002 -0.039999999 38
13.316 -5.4120002 -0.039999999 20
13.326 -5.3259997 -0.039999999 25
13.39 -5.2620001 -0.039999999 23
13.448001 -5.1959996 -0.039999999 24
13.474 -5.1139998 -0.039999999 23
13.511999 -5.04 -0.039999999 24
13.561999 -4.9679999 -0.039999999 20
13.67 -4.9179997 -0.039999999 19
13.82 -4.882 -0.039999999 17
14.008 -4.8579998 -0.041999999 21
14.116 -4.802 -0.041999999 28
0 0 0 4
0 0 0 0
0 0 0 0
0 0 0 5
0 0 0 5
0 0 0 5
0 0 0 5
0 0 0 5
14.548 -4.1160002 -0.041999999 21
14.551999 -4.026 -0.041999999 25
14.59 -3.944 -0.041999999 29
14.628 -3.8639998 -0.041999999 23
0 0 0 4
0 0 0 4
0 0 0 4
0 0 0 4
0 0 0 4
0 0 0 4
0 0 0 0
0 0 0 5
15.11 -3.158 -0.044 25
15.132 -3.0699999 -0.044 28
15.165999 -2.9860001 -0.044 28
15.188001 -2.8979998 -0.044 26
0 0 0 4
0 0 0 5
0 0 0 6
0 0 0 5
0 0 0 6
0 0 0 6
0 0 0 6
0 0 0 6
15.906 -2.1819999 -0.046 34
15.87 -2.0839999 -0.046 33
15.882 -1.992 -0.046 35
15.88 -1.898 -0.046 37
0 0 0 7
0 0 0 7
0 0 0 8
0 0 0 8
0 0 0 5
0 0 0 5
0 0 0 5
0 0 0 5
16.434 -1.096 -0.046 32
16.426001 -1 -0.046 47
16.434 -0.90599996 -0.046 49
16.35 -0.80599999 -0.046 38
16.27 -0.70599997 -0.046 35
16.164 -0.60799998 -0.046 18
16.208 -0.51599997 -0.046 18
16.274 -0.42200002 -0.046 16
16.364 -0.33000001 -0.046 14
16.41 -0.236 -0.046 13
16.48 -0.14 -0.046 13
16.562 -0.046 -0.046 18
22.978001 0.064000003 -0.064000003 19
22.898001 0.19600001 -0.064000003 24
22.748001 0.32599998 -0.064000003 23
22.508001 0.45400003 -0.064000003 25
22.299999 0.57999998 -0.064000003 23
22.110001 0.704 -0.064000003 23
22.042 0.82999998 -0.061999999 22
0 0 0 3
21.538 1.0619999 -0.061999999 16
21.334 1.176 -0.059999999 18
21.209999 1.2919999 -0.059999999 19
21.008001 1.402 -0.059999999 19
20.812 1.51 -0.059999999 21
20.623999 1.618 -0.058000002 20
20.5 1.728 -0.058000002 21
20.323999 1.832 -0.058000002 20
18 1.728 -0.051999997 18
17.926001 1.8260001 -0.051999997 17
19.718 2.1239998 -0.055999998 16
19.66 2.234 -0.055999998 15
19.482 2.3280001 -0.055999998 16
19.271999 2.4160001 -0.055999998 17
19.132 2.5120001 -0.054000001 17
18.945999 2.5999999 -0.054000001 24
18.802 2.6900001 -0.054000001 37
18.638 2.7779999 -0.054000001 40
18.538 2.8739998 -0.054000001 49
18.445999 2.9679999 -0.051999997 48
18.428001 3.076 -0.051999997 47
18.455999 3.1900001 -0.054000001 51
18.508001 3.3099999 -0.054000001 47
18.588001 3.4360001 -0.054000001 50
18.66 3.562 -0.054000001 45
18.741999 3.6900001 -0.054000001 46
18.792 3.8139999 -0.054000001 44
18.889999 3.948 -0.054000001 47
21.959999 4.7220001 -0.064000003 48
21.836 4.8280001 -0.064000003 52
21.718 4.9359999 -0.064000003 54
21.540001 5.026 -0.061999999 50
21.406 5.1259999 -0.061999999 51
21.223999 5.2140002 -0.061999999 47
21.116001 5.3179998 -0.061999999 51
20.943998 5.4040003 -0.061999999 46
20.812 5.4979997 -0.059999999 53
20.633999 5.5799999 -0.059999999 47
20.523998 5.678 -0.059999999 52
20.438 5.7820001 -0.059999999 43
15.734 4.5500002 -0.046 42
15.656 4.6259999 -0.046 37
15.582 4.7020001 -0.046 33
15.454 4.7620001 -0.046 39
15.364 4.8320003 -0.046 36
15.234 4.888 -0.044 45
15.164001 4.9639997 -0.044 35
15.13 5.0500002 -0.044 46
15.168 5.1599998 -0.044 33
15.234 5.2820001 -0.044 40
15.288 5.4000001 -0.046 37
15.372 5.5320001 -0.046 37
15.446 5.6599998 -0.046 36
15.516 5.7880001 -0.046 42
18.298 6.9459996 -0.054000001 43
18.218 7.0380001 -0.054000001 52
18.122 7.1220002 -0.054000001 54
17.982 7.1879997 -0.054000001 56
17.892 7.2740002 -0.054000001 49
17.758001 7.3400002 -0.054000001 58
17.656 7.4179997 -0.054000001 48
17.518 7.4779997 -0.051999997 63
17.43 7.5620003 -0.051999997 47
17.299999 7.6259999 -0.051999997 66
17.198 7.6999998 -0.051999997 51
17.056 7.7559996 -0.051999997 70
16.969999 7.836 -0.051999997 52
16.844 7.8979998 -0.051999997 70
16.756001 7.9759998 -0.051999997 51
16.620001 8.0299997 -0.050000001 68
16.540001 8.1099997 -0.050000001 47
16.411999 8.1659994 -0.050000001 65
16.32 8.2379999 -0.050000001 45
16.184 8.29 -0.050000001 57
16.105999 8.368 -0.050000001 48
16.042 8.4540005 -0.050000001 59
12.4 6.6259999 -0.037999999 49
12.318001 6.6740003 -0.037999999 65
12.258 6.7359996 -0.037999999 49
12.16 6.7740002 -0.037999999 66
12.094 6.8299999 -0.037999999 47
11.992 6.8659997 -0.037999999 66
11.94 6.928 -0.037999999 44
11.874001 6.9820004 -0.037999999 54
11.868 7.072 -0.037999999 31
11.886 7.178 -0.037999999 30
11.944 7.3080001 -0.037999999 29
12.035999 7.46 -0.037999999 24
12.104 7.5999999 -0.037999999 30
12.125999 7.7140002 -0.037999999 42
14.464001 9.3199997 -0.046 31
14.39 9.3900003 -0.046 60
14.314 9.46 -0.046 43
14.2 9.5059996 -0.046 65
14.134 9.5819998 -0.046 44
14.026 9.6280003 -0.046 70
13.944 9.6920004 -0.046 45
13.82 9.7259998 -0.046 77
13.756 9.8000002 -0.046 43
13.654 9.8479996 -0.044 77
13.578 9.9159994 -0.044 45
13.462 9.9519997 -0.044 69
13.394 10.024 -0.044 46
13.29 10.066 -0.044 64
13.21 10.128 -0.044 43
13.094 10.16 -0.044 65
13.028001 10.234 -0.044 40
12.931999 10.282 -0.044 63
12.854 10.341999 -0.044 33
12.754001 10.384 -0.044 41
12.688001 10.454 -0.044 33
12.624001 10.528001 -0.044 55
12.57 10.608001 -0.044 52
12.495999 10.672 -0.041999999 86
12.434 10.744 -0.041999999 53
12.375999 10.82 -0.041999999 55
12.301999 10.886 -0.041999999 23
12.196 10.918 -0.041999999 37
12.09 10.952 -0.041999999 28
12.072 11.066 -0.041999999 66
9.2080002 8.54 -0.032000002 55
9.1219997 8.5600004 -0.032000002 89
9.0699997 8.6120005 -0.032000002 55
9.0059996 8.6540003 -0.032000002 90
8.9540005 8.7040005 -0.032000002 53
8.8800001 8.7340002 -0.032000002 86
8.8280001 8.7859993 -0.032000002 54
8.7559996 8.8179998 -0.032000002 92
8.6960001 8.8599997 -0.032000002 57
8.6160002 8.882 -0.032000002 96
8.5579996 8.9279995 -0.032000002 55
8.5340004 9.0059996 -0.032000002 64
8.54 9.1219997 -0.032000002 26
8.5979996 9.29 -0.032000002 36
10.646 11.64 -0.039999999 22
10.591999 11.72 -0.039999999 56
10.51 11.768001 -0.039999999 40
10.42 11.806 -0.039999999 75
10.354 11.87 -0.039999999 41
10.406 12.074 -0.039999999 46
10.49 12.316 -0.039999999 19
10.574 12.564 -0.041999999 11
10.98 13.205999 -0.041999999 9
11.27 13.718 -0.044 11
12.112 14.922 -0.048 8
12.068001 15.048 -0.048 10
13.008 16.418001 -0.051999997 8
13.044001 16.664 -0.051999997 25
14.218 18.386 -0.058000002 28
14.1 18.455999 -0.058000002 32
14.034 18.596001 -0.058000002 27
13.948001 18.712 -0.058000002 15
13.84 18.798 -0.058000002 9
13.674 18.804001 -0.058000002 18
13.538 18.85 -0.058000002 33
13.434 18.941999 -0.055999998 55
0 0 0 6
0 0 0 7
0 0 0 7
12.97 19.236 -0.055999998 49
8.6240005 12.955999 -0.037999999 59
8.5539999 13.018001 -0.037999999 83
8.4940004 13.094 -0.037999999 51
8.4159994 13.144 -0.037999999 75
8.3439999 13.205999 -0.037999999 43
8.25 13.226 -0.037999999 74
8.1659994 13.27 -0.037999999 62
8.0780001 13.304 -0.035999998 70
8.0120001 13.372 -0.035999998 54
7.9320002 13.418 -0.035999998 46
7.8559999 13.47 -0.035999998 42
0 0 0 7
0 0 0 58
1.454 -2.494 0.0060000001 60
1.474 -2.494 0.0060000001 45
1.518 -2.536 0.0060000001 52
1.5519999 -2.556 0.0060000001 50
1.58 -2.5679998 0.0060000001 63
1.5780001 -2.5320001 0.0060000001 63
1.592 -2.52 0.0060000001 51
1.618 -2.526 0.0060000001 43
1.67 -2.576 0.0060000001 30
1.7080001 -2.5999999 0.0060000001 27
1.756 -2.6400001 0.0060000001 31
1.7919999 -2.658 0.0060000001 37
1.84 -2.6960001 0.0080000004 38
1.878 -2.714 0.0080000004 42
1.9260001 -2.75 0.0080000004 36
1.964 -2.77 0.0080000004 34
2.006 -2.7939999 0.0080000004 40
2.036 -2.8 0.0080000004 49
2.076 -2.8179998 0.0080000004 47
2.1199999 -2.846 0.0080000004 72
4.184 -5.5459995 0.016000001 63
4.1820002 -5.4740005 0.016000001 83
4.1799998 -5.4059997 0.016000001 66
4.1799998 -5.3400002 0.016000001 70
4.2079997 -5.3099999 0.016000001 39
4.2320004 -5.2779999 0.016000001 42
4.2600002 -5.2479997 0.016000001 22
4.276 -5.2059999 0.016000001 33
4.3060002 -5.178 0.016000001 23
4.3280001 -5.1420002 0.016000001 32
4.3600001 -5.1199999 0.016000001 22
4.3779998 -5.0799999 0.016000001 49
4.402 -5.0479999 0.016000001 46
4.4179997 -5.006 0.016000001 79
4.4419999 -4.974 0.016000001 65
4.4579997 -4.9320002 0.016000001 97
4.4820004 -4.9000001 0.016000001 68
4.5020003 -4.8660002 0.016000001 105
4.5279999 -4.836 0.016000001 67
4.5479999 -4.802 0.016000001 104
4.5739999 -4.77 0.016000001 64
4.5939999 -4.7360001 0.016000001 101
4.6199999 -4.7059999 0.016000001 66
4.6360002 -4.6679997 0.016000001 106
4.6599998 -4.638 0.016000001 68
4.6799998 -4.6040001 0.016000001 105
4.71 -4.5799999 0.016000001 56
4.7600002 -4.572 0.016000001 79
4.8140001 -4.5700002 0.016000001 38
4.9000001 -4.598 0.016000001 46
5.0500002 -4.684 0.017999999 37
5.2020001 -4.7679996 0.017999999 56
5.3059998 -4.8060002 0.017999999 42
7.6820002 -6.8779998 0.025999999 90
7.7479997 -6.8559999 0.025999999 49
7.79 -6.8120003 0.025999999 104
7.8320003 -6.7679996 0.025999999 62
7.8579998 -6.71 0.025999999 101
7.8940001 -6.6620002 0.025999999 63
7.9219999 -6.6059999 0.025999999 100
7.9619999 -6.5599999 0.025999999 48
8.052 -6.5559998 0.025999999 64
8.1999998 -6.598 0.027999999 36
11.101999 -8.8260002 0.037999999 43
11.132 -8.7440004 0.037999999 36
11.164001 -8.6640005 0.037999999 64
11.25 -8.6259995 0.037999999 33
11.384 -8.6219997 0.037999999 50
11.518001 -8.618 0.037999999 20
11.662 -8.6219997 0.037999999 23
11.824 -8.6339998 0.037999999 16
15.26 -11.006 0.050000001 11
15.33 -10.922 0.050000001 11
15.47 -10.886 0.050000001 13
0 0 0 2
0 0 0 3
20.139999 -13.651999 0.066 29
20.241999 -13.55 0.066 31
20.336 -13.441999 0.066 30
20.416 -13.324 0.066 31
20.813999 -13.412 0.068000004 22
12.314 -7.8340001 0.039999999 33
12.28 -7.71 0.037999999 27
12.382 -7.6740003 0.039999999 48
12.441999 -7.612 0.039999999 46
12.495999 -7.5440001 0.039999999 42
12.488001 -7.4419999 0.039999999 39
16.23 -9.5440006 0.051999997 24
16.290001 -9.4519997 0.051999997 22
16.318001 -9.342 0.051999997 21
16.365999 -9.2420006 0.051999997 19
0 0 0 3
0 0 0 3
0 0 0 4
0 0 0 4
12.901999 -6.7979999 0.039999999 24
12.915999 -6.71 0.039999999 28
12.994 -6.6540003 0.039999999 28
13.054 -6.5900002 0.039999999 23
0 0 0 4
0 0 0 4
0 0 0 4
0 0 0 4
0 0 0 4
0 0 0 4
0 0 0 4
0 0 0 4
0 0 0 4
0 0 0 4
13.498 -5.7620001 0.039999999 28
13.448001 -5.6500001 0.039999999 20
13.366 -5.5240002 0.039999999 40
13.29 -5.402 0.039999999 17
13.31 -5.3200002 0.039999999 25
13.374001 -5.2559996 0.039999999 19
13.444 -5.1940002 0.039999999 23
13.458 -5.1079998 0.039999999 20
13.494 -5.0339999 0.039999999 25
13.535999 -4.96 0.039999999 18
13.651999 -4.9120002 0.039999999 17
13.792 -4.8720002 0.039999999 16
13.99 -4.8499999 0.041999999 21
14.094 -4.796 0.041999999 29
0 0 0 6
0 0 0 6
0 0 0 6
0 0 0 6
0 0 0 6
0 0 0 5
0 0 0 0
0 0 0 5
14.57 -4.1220002 0.041999999 25
14.546 -4.0240002 0.041999999 26
14.576 -3.9420002 0.041999999 24
14.604 -3.8579998 0.041999999 22
0 0 0 5
0 0 0 5
0 0 0 5
0 0 0 5
0 0 0 6
0 0 0 6
0 0 0 6
0 0 0 6
0 0 0 5
15.088 -3.062 0.044 34
15.148001 -2.9820001 0.044 29
15.16 -2.8940001 0.044 24
0 0 0 6
0 0 0 6
0 0 0 7
0 0 0 7
0 0 0 7
0 0 0 7
0 0 0 7
0 0 0 7
0 0 0 7
15.886 -2.086 0.046 42
15.89 -1.992 0.046 43
15.868 -1.896 0.046 44
0 0 0 9
0 0 0 9
0 0 0 10
0 0 0 9
17.171999 -1.548 0.048 36
17.191999 -1.4480001 0.048 37
0 0 0 6
0 0 0 6
16.41 -1.096 0.046 32
16.406 -1 0.046 41
16.424 -0.90400004 0.046 44
16.34 -0.80400002 0.046 31
16.268 -0.70599997 0.046 28
16.148001 -0.60799998 0.046 15
16.190001 -0.514 0.046 14
16.254 -0.42200002 0.046 12
16.358 -0.33000001 0.046 11
16.392 -0.236 0.046 10
16.441999 -0.14 0.046 11
16.5 -0.046 0.046 18
22.972 0.064000003 0.064000003 18
22.863998 0.19600001 0.064000003 24
22.74 0.32599998 0.064000003 23
22.488001 0.45400003 0.064000003 25
22.283998 0.57999998 0.064000003 23
22.073999 0.70199996 0.061999999 24
22.028 0.82800001 0.061999999 25
22.139999 0.96199995 0.064000003 19
21.526001 1.0599999 0.061999999 22
21.318001 1.174 0.059999999 19
21.218 1.2919999 0.059999999 19
21.011999 1.402 0.059999999 20
20.821999 1.512 0.059999999 20
20.626001 1.618 0.058000002 19
20.504 1.728 0.058000002 19
20.365999 1.8360001 0.058000002 20
18.124001 1.74 0.051999997 18
18.086 1.842 0.051999997 16
19.906 2.1440001 0.055999998 15
19.84 2.2539999 0.055999998 12
19.726 2.358 0.055999998 13
19.521999 2.448 0.055999998 13
19.341999 2.54 0.055999998 15
19.052 2.6139998 0.054000001 20
18.828001 2.694 0.054000001 31
18.634001 2.7779999 0.054000001 40
18.540001 2.8739998 0.054000001 48
18.448 2.9679999 0.051999997 52
18.421999 3.0739999 0.051999997 57
18.444 3.188 0.054000001 57
18.498001 3.3079998 0.054000001 55
18.573999 3.434 0.054000001 53
18.644001 3.5579998 0.054000001 52
18.726 3.688 0.054000001 46
18.774 3.8099999 0.054000001 46
18.808001 3.9300001 0.054000001 53
21.962 4.724 0.064000003 52
21.821999 4.8260002 0.064000003 61
21.712 4.934 0.064000003 64
21.538 5.026 0.061999999 62
21.403999 5.1259999 0.061999999 65
21.219999 5.2119999 0.061999999 65
21.113998 5.316 0.061999999 61
20.941999 5.402 0.061999999 67
20.809999 5.4979997 0.059999999 61
20.632 5.5780001 0.059999999 65
20.526001 5.678 0.059999999 62
20.418001 5.7759995 0.059999999 56
15.734 4.5500002 0.046 53
15.654 4.6259999 0.046 49
15.58 4.7020001 0.046 46
15.452 4.7620001 0.046 56
15.362 4.8320003 0.046 53
15.23 4.888 0.044 62
15.158001 4.9619999 0.044 55
15.124001 5.0479999 0.044 61
15.158001 5.158 0.044 49
15.221999 5.2779999 0.044 60
15.278001 5.3979998 0.046 46
15.362 5.5279999 0.046 59
15.436 5.6559997 0.046 41
15.51 5.7859998 0.046 66
18.294001 6.9459996 0.054000001 48
18.222 7.0380001 0.054000001 74
18.124001 7.1240001 0.054000001 62
17.986 7.1900001 0.054000001 78
17.896 7.2740002 0.054000001 57
17.764 7.3400002 0.054000001 80
17.661999 7.4200001 0.054000001 59
17.525999 7.4820004 0.051999997 85
17.441999 7.566 0.051999997 67
17.308001 7.6279998 0.051999997 91
17.204 7.7020001 0.051999997 72
17.058001 7.7579999 0.051999997 92
16.98 7.8400002 0.051999997 70
16.85 7.9000001 0.051999997 95
16.761999 7.9779997 0.051999997 62
16.622 8.0299997 0.050000001 90
16.546 8.1120005 0.050000001 59
16.418001 8.1680002 0.050000001 89
16.323999 8.2420006 0.050000001 58
16.185999 8.29 0.050000001 84
16.104 8.3660002 0.050000001 56
16.032 8.448 0.050000001 90
12.375999 6.6140003 0.037999999 64
12.324 6.678 0.037999999 104
12.264 6.7379999 0.037999999 71
12.168 6.7779999 0.037999999 105
12.101999 6.8340001 0.037999999 71
12.004001 6.8699999 0.037999999 106
11.952 6.934 0.037999999 68
11.88 6.9859996 0.037999999 87
11.872 7.0740004 0.037999999 48
11.88 7.1740003 0.037999999 63
11.926 7.2959995 0.037999999 34
12.011999 7.4459996 0.037999999 59
12.074 7.5799999 0.037999999 29
12.136 7.7199998 0.037999999 73
14.458 9.316 0.046 42
14.4 9.3979998 0.046 89
14.326 9.4679995 0.046 60
14.212 9.5120001 0.046 99
14.148001 9.5900002 0.046 57
14.038 9.6359997 0.046 110
13.954 9.698 0.046 61
13.828 9.7320004 0.046 111
13.766 9.8079996 0.046 64
13.668 9.8579998 0.044 106
13.591999 9.9259996 0.044 64
13.478001 9.9640007 0.044 107
13.41 10.035999 0.044 61
13.304 10.078 0.044 104
13.226 10.14 0.044 57
13.108001 10.172 0.044 102
13.044001 10.245999 0.044 58
12.948001 10.294001 0.044 100
12.87 10.354 0.044 54
12.768001 10.396 0.044 97
12.698001 10.464001 0.044 50
12.634 10.534 0.044 108
12.582 10.618 0.044 69
12.51 10.681999 0.041999999 128
12.448001 10.756 0.041999999 75
12.375999 10.822 0.041999999 85
12.308001 10.89 0.041999999 34
12.194 10.915999 0.041999999 51
12.108001 10.968 0.041999999 30
11.995999 10.995999 0.041999999 92
9.1619997 8.4959993 0.032000002 70
9.1339998 8.5720005 0.032000002 123
9.0840006 8.6259995 0.032000002 76
9.0200005 8.6659994 0.032000002 136
8.9679995 8.7179995 0.032000002 75
8.8940001 8.7480001 0.032000002 136
8.842 8.8000002 0.032000002 73
8.7700005 8.8319998 0.032000002 138
8.7119999 8.8759995 0.032000002 73
8.6280003 8.8940001 0.032000002 143
8.5720005 8.9420004 0.032000002 74
8.5480003 9.0220003 0.032000002 102
8.5459995 9.1259995 0.032000002 39
8.6000004 9.2940006 0.032000002 55
8.8879995 9.7200003 0.034000002 27
10.588 11.716 0.039999999 87
10.394 11.638 0.039999999 50
10.431999 11.818001 0.039999999 122
10.368 11.886 0.039999999 53
10.4 12.068001 0.039999999 69
10.471999 12.296 0.039999999 23
10.532 12.516 0.039999999 12
10.954 13.174 0.041999999 10
11.158001 13.582 0.044 11
12.058001 14.854 0.048 9
12.02 14.988001 0.048 9
12.9 16.280001 0.051999997 8
12.89 16.466 0.051999997 34
14.165999 18.318001 0.058000002 32
14.101999 18.459999 0.058000002 44
14.032 18.596001 0.058000002 34
13.93 18.688 0.058000002 19
13.818001 18.768 0.058000002 12
13.656 18.782 0.058000002 38
13.532 18.844 0.055999998 42
13.424 18.928001 0.055999998 53
13.334001 19.038 0.055999998 60
13.216 19.110001 0.055999998 48
13.076 19.148001 0.055999998 42
12.962 19.226 0.055999998 80
8.6079998 12.931999 0.037999999 52
8.552 13.016 0.037999999 89
8.4879999 13.085999 0.037999999 48
8.4060001 13.13 0.037999999 65
8.3380003 13.196 0.037999999 37
8.25 13.228001 0.037999999 69
8.1779995 13.288 0.037999999 41
8.0859995 13.316 0.035999998 72
8.0139999 13.375999 0.035999998 46
7.9259996 13.408001 0.035999998 70
7.8499999 13.462 0.035999998 74
0 0 0 7
0 0 0 62
1.464 -2.51 0.02 65
1.484 -2.51 0.02 50
1.526 -2.5480001 0.02 51
1.5599999 -2.5679998 0.02 50
1.5860001 -2.5799999 0.022 58
1.5860001 -2.5439999 0.022 65
1.6 -2.5339999 0.022 51
1.624 -2.5380001 0.022 53
1.6760001 -2.586 0.022 38
1.7160001 -2.6099999 0.022 32
1.762 -2.6479998 0.022 36
1.796 -2.664 0.022 37
1.842 -2.698 0.024 43
1.88 -2.7179999 0.024 46
1.928 -2.7539999 0.024 39
1.97 -2.776 0.024 40
2.0120001 -2.802 0.024 44
2.0420001 -2.8099999 0.025999999 54
2.0780001 -2.8239999 0.025999999 52
2.118 -2.842 0.025999999 69
4.1820002 -5.5420003 0.051999997 62
4.1760001 -5.4679999 0.051999997 69
4.1739998 -5.3979998 0.050000001 64
4.1760001 -5.336 0.050000001 71
4.2020001 -5.3040004 0.050000001 53
4.224 -5.2679996 0.050000001 64
4.2520003 -5.2379999 0.050000001 47
4.27 -5.198 0.050000001 48
4.3000002 -5.1719999 0.050000001 31
4.322 -5.1359997 0.050000001 32
4.3520002 -5.1100001 0.050000001 27
4.368 -5.0700002 0.050000001 53
4.3940001 -5.0380001 0.050000001 51
4.4099998 -4.9979997 0.050000001 77
4.4359999 -4.9660001 0.050000001 62
4.4520001 -4.9260001 0.050000001 80
4.4759998 -4.8940001 0.050000001 62
4.4960003 -4.8600001 0.050000001 86
4.5220003 -4.8299999 0.050000001 61
4.5420003 -4.7940001 0.050000001 84
4.5640001 -4.7620001 0.050000001 61
4.5840001 -4.7259998 0.050000001 81
4.6079998 -4.6960001 0.050000001 62
4.6259999 -4.658 0.050000001 85
4.6500001 -4.6279998 0.050000001 63
4.6679997 -4.592 0.050000001 89
4.7020001 -4.5700002 0.050000001 53
4.75 -4.5640001 0.051999997 66
4.8060002 -4.5640001 0.051999997 40
4.8920002 -4.592 0.051999997 36
5.0440001 -4.678 0.054000001 36
5.29 -4.8499999 0.055999998 43
5.322 -4.822 0.055999998 36
7.6940002 -6.888 0.081999995 64
7.7340002 -6.842 0.081999995 46
7.7720003 -6.7959995 0.081999995 80
7.816 -6.7540002 0.081999995 61
7.8400002 -6.6959996 0.081999995 84
7.8779998 -6.6479998 0.081999995 60
7.9040003 -6.592 0.081999995 83
7.9459996 -6.5479999 0.081999995 46
8.04 -6.5459995 0.081999995 56
8.1960001 -6.5940003 0.083999999 37
11.096 -8.8199997 0.11399999 42
11.114 -8.7299995 0.11399999 35
11.141999 -8.6479998 0.11399999 60
11.231999 -8.6120005 0.11399999 31
11.362 -8.6059999 0.11399999 42
11.504001 -8.6079998 0.116 19
11.658001 -8.618 0.118 18
11.782 -8.6040001 0.118 10
0 0 0 1
0 0 0 1
0 0 0 2
0 0 0 2
20.056 -13.766 0.198 28
20.129999 -13.646 0.198 31
20.222 -13.535999 0.2 32
20.32 -13.431999 0.2 30
20.403999 -13.316 0.2 30
20.491999 -13.204 0.2 27
20.58 -13.091999 0.2 25
12.298 -7.7220001 0.12 31
12.368 -7.6659999 0.12 30
12.511999 -7.6540003 0.12 32
12.466 -7.5279999 0.12 28
12.57 -7.4899998 0.12 26
16.258001 -9.5600004 0.156 20
16.278 -9.4440002 0.156 22
16.292 -9.3260002 0.156 20
16.338001 -9.2259998 0.156 18
0 0 0 2
0 0 0 2
0 0 0 3
0 0 0 3
12.848001 -6.77 0.12 19
12.868 -6.6859999 0.12 20
12.948001 -6.632 0.122 19
13.008 -6.5679998 0.122 17
0 0 0 3
0 0 0 3
0 0 0 3
0 0 0 3
0 0 0 3
0 0 0 3
0 0 0 3
0 0 0 3
0 0 0 3
0 0 0 3
13.454 -5.7440004 0.124 22
13.42 -5.638 0.122 16
13.341999 -5.5140004 0.122 32
13.28 -5.3979998 0.12 16
13.292 -5.3140001 0.12 21
13.358001 -5.25 0.122 18
13.41 -5.1799998 0.122 21
13.43 -5.098 0.122 19
13.455999 -5.02 0.122 23
13.508 -4.9499998 0.122 17
13.61 -4.8959999 0.122 16
13.754001 -4.8579998 0.124 14
13.936 -4.8320003 0.126 17
14.044001 -4.7779999 0.126 23
0 0 0 5
0 0 0 5
0 0 0 6
0 0 0 5
0 0 0 5
0 0 0 4
0 0 0 4
0 0 0 4
14.596 -4.1300001 0.13 23
14.538 -4.0220003 0.12800001 22
14.55 -3.934 0.12800001 22
14.574 -3.8499999 0.12800001 20
0 0 0 4
0 0 0 4
0 0 0 5
0 0 0 5
0 0 0 6
0 0 0 6
0 0 0 6
0 0 0 6
0 0 0 5
15.076 -3.0599999 0.132 31
15.128 -2.9779999 0.132 26
15.14 -2.8900001 0.132 22
0 0 0 4
0 0 0 5
0 0 0 6
0 0 0 6
0 0 0 6
0 0 0 6
0 0 0 7
0 0 0 7
0 0 0 8
0 0 0 7
15.884 -1.992 0.138 39
15.862 -1.896 0.138 43
0 0 0 9
0 0 0 9
0 0 0 0
0 0 0 9
17.194 -1.55 0.15000001 31
17.209999 -1.45 0.15000001 33
0 0 0 6
0 0 0 6
16.396 -1.094 0.142 27
16.389999 -0.99800003 0.142 31
16.403999 -0.90400004 0.142 33
16.323999 -0.80400002 0.142 25
16.256001 -0.70599997 0.14 26
16.144001 -0.60799998 0.14 15
16.181999 -0.514 0.14 14
16.27 -0.42200002 0.14 11
16.368 -0.33000001 0.14 10
16.4 -0.236 0.14 9
16.421999 -0.14 0.14 10
16.48 -0.046 0.14 16
22.941999 0.064000003 0.19600001 18
22.896002 0.19600001 0.19600001 22
22.75 0.32799998 0.19600001 24
22.488001 0.45400003 0.19399999 24
22.286001 0.57999998 0.192 25
22.088001 0.70199996 0.19 24
22.036001 0.82999998 0.19 25
22.139999 0.96199995 0.192 19
21.178001 1.044 0.184 21
21.382 1.178 0.186 18
21.309999 1.298 0.184 19
21.133999 1.41 0.184 19
20.956001 1.522 0.18200001 18
20.75 1.628 0.18000001 17
20.618 1.738 0.17799999 18
20.392 1.8380001 0.176 18
18.02 1.73 0.156 16
18.046 1.8380001 0.156 14
20.166 2.1719999 0.176 13
20.068001 2.28 0.17399999 11
19.959999 2.3860002 0.17399999 12
19.664 2.4660001 0.17200001 12
19.501999 2.5599999 0.17 14
19.139999 2.6260002 0.16600001 18
18.851999 2.698 0.16399999 23
18.638 2.7779999 0.162 31
18.540001 2.8739998 0.162 33
18.441999 2.9679999 0.16 39
18.414 3.0739999 0.16 38
18.43 3.1860001 0.162 42
18.482 3.306 0.162 40
18.554001 3.4300001 0.162 41
18.624001 3.556 0.16399999 41
18.705999 3.684 0.16399999 40
18.751999 3.806 0.16399999 39
18.75 3.918 0.16399999 44
21.916 4.7139997 0.192 38
21.821999 4.8260002 0.192 48
21.708 4.934 0.192 44
21.536001 5.026 0.19 46
21.403999 5.1259999 0.18799999 51
21.222 5.2140002 0.18799999 46
21.110001 5.316 0.186 50
20.933998 5.4000001 0.186 47
20.802 5.4959998 0.184 49
20.626001 5.5780001 0.18200001 52
20.518 5.6759996 0.18200001 47
20.43 5.7800002 0.18200001 46
15.724 4.5479999 0.14 39
15.634 4.6199999 0.14 37
15.556 4.6939998 0.138 35
15.426 4.7539997 0.138 46
15.341999 4.8260002 0.13600001 42
15.212 4.882 0.13600001 56
15.14 4.9559999 0.13600001 46
15.101999 5.04 0.13600001 54
15.134 5.1500001 0.13600001 40
15.2 5.27 0.13600001 49
15.26 5.3920002 0.138 38
15.346 5.5220003 0.138 45
15.42 5.6500001 0.14 37
15.498 5.7800002 0.14 44
18.314001 6.9520001 0.16600001 38
18.214001 7.0359998 0.16600001 50
18.118 7.1199999 0.16399999 41
17.978001 7.1859999 0.16399999 52
17.889999 7.2720003 0.16399999 41
17.756001 7.3379998 0.162 54
17.661999 7.4200001 0.162 42
17.525999 7.4820004 0.16 58
17.441999 7.5679998 0.16 44
17.302 7.6259999 0.16 59
17.198 7.6999998 0.15800001 50
17.054001 7.7559996 0.15800001 66
16.974001 7.8379998 0.156 49
16.841999 7.8959999 0.156 70
16.75 7.9720001 0.156 46
16.612 8.026 0.154 66
16.535999 8.1079998 0.154 45
16.41 8.1640005 0.154 60
16.316 8.2360001 0.152 43
16.176001 8.2859993 0.152 54
16.091999 8.3599997 0.152 47
16.004 8.434 0.15000001 61
12.398001 6.6259999 0.116 52
12.311999 6.6719999 0.116 71
12.25 6.7320004 0.116 48
12.158001 6.7720003 0.116 74
12.094 6.8299999 0.11399999 51
11.995999 6.868 0.11399999 74
11.94 6.928 0.11399999 49
11.86 6.9740005 0.11399999 58
11.846 7.0580001 0.11399999 33
11.846 7.152 0.11399999 41
11.89 7.2740002 0.11399999 33
11.968 7.4179997 0.116 33
12.035999 7.5580001 0.116 35
12.12 7.71 0.118 42
14.47 9.3240004 0.14 34
14.386 9.3879995 0.14 59
14.311999 9.46 0.14 41
14.2 9.5040007 0.14 67
14.136 9.5819998 0.14 43
14.026 9.6280003 0.138 66
13.941999 9.6899996 0.138 48
13.82 9.7259998 0.138 69
13.756 9.8000002 0.138 49
13.651999 9.8479996 0.13600001 74
13.576 9.9140005 0.13600001 51
13.46 9.9519997 0.13600001 74
13.394 10.022 0.13600001 50
13.288 10.066 0.134 70
13.21 10.128 0.134 44
13.094 10.162 0.134 67
13.026 10.232 0.134 43
12.928 10.278001 0.132 61
12.858001 10.344 0.132 37
12.752 10.384 0.132 51
12.68 10.45 0.132 47
12.606 10.511999 0.13 58
12.558001 10.598001 0.13 63
12.488001 10.665999 0.13 82
12.428 10.74 0.13 56
12.35 10.8 0.13 72
12.28 10.866 0.13 45
12.176 10.901999 0.13 65
12.091999 10.954 0.12800001 42
12.072 11.066 0.13 76
9.2059994 8.5380001 0.098000005 50
9.1160002 8.5539999 0.098000005 78
9.066 8.6079998 0.098000005 53
9 8.6479998 0.098000005 89
8.948 8.698 0.098000005 56
8.8719997 8.7279997 0.098000005 88
8.8199997 8.7779999 0.096000001 56
8.7480001 8.8100004 0.096000001 89
8.6899996 8.8540001 0.096000001 58
8.6099997 8.8780003 0.096000001 93
8.5539999 8.9219999 0.096000001 57
8.526 9 0.096000001 65
8.5299997 9.1099997 0.096000001 30
8.6420002 9.3400002 0.098000005 33
8.9300003 9.7639999 0.102 26
8.8120003 9.75 0.1 57
10.516 11.774 0.122 40
10.418 11.804 0.12 79
10.354 11.872 0.12 42
10.374001 12.038 0.122 46
10.44 12.258 0.122 19
10.69 12.704 0.126 13
11.088 13.335999 0.132 11
11.151999 13.574 0.134 12
12.018001 14.806 0.14399999 10
12.018001 14.986 0.146 11
12.814 16.174 0.156 8
12.856 16.424 0.15800001 29
14.191999 18.351999 0.17399999 36
14.088 18.441999 0.17399999 44
14.01 18.566 0.17399999 40
13.891999 18.638 0.17399999 29
13.78 18.718 0.17399999 17
13.63 18.746 0.17399999 32
13.516 18.82 0.17200001 38
13.406 18.902 0.17200001 39
13.306 18.998001 0.17200001 46
13.181999 19.059999 0.17200001 38
13.056 19.120001 0.17200001 35
12.93 19.178001 0.17 54
8.6199999 12.95 0.11399999 44
8.5419998 13 0.11399999 60
8.474 13.064 0.11399999 40
8.3900003 13.104 0.11399999 52
8.3240004 13.172 0.11399999 37
8.2379999 13.21 0.11399999 58
8.1700001 13.276 0.11399999 40
8.0780001 13.304 0.112 64
8.0040007 13.358001 0.112 40
7.914 13.388 0.112 63
7.8379998 13.441999 0.112 65
0 0 0 5
0 0 0 61
1.45 -2.4879999 0.034000002 64
1.472 -2.49 0.034000002 48
1.516 -2.5320001 0.034000002 54
1.5519999 -2.556 0.035999998 47
1.58 -2.5679998 0.035999998 60
1.5760001 -2.53 0.035999998 61
1.59 -2.516 0.035999998 50
1.614 -2.5220001 0.035999998 47
1.668 -2.572 0.035999998 30
1.7060001 -2.5979998 0.037999999 27
1.756 -2.6379998 0.037999999 29
1.79 -2.6560001 0.037999999 34
1.8380001 -2.6920002 0.039999999 41
1.874 -2.71 0.039999999 44
1.9239999 -2.7479999 0.039999999 35
1.9660001 -2.7720001 0.041999999 36
2.0080001 -2.796 0.041999999 34
2.036 -2.8 0.041999999 47
2.072 -2.816 0.041999999 47
2.122 -2.8479998 0.044 68
4.1820002 -5.5420003 0.086000003 62
4.1739998 -5.4640002 0.086000003 82
4.1719999 -5.3959999 0.086000003 64
4.1739998 -5.3340001 0.083999999 92
4.1999998 -5.3000002 0.083999999 61
4.2199998 -5.2620001 0.083999999 86
4.2460003 -5.2320004 0.083999999 60
4.2679996 -5.1959996 0.083999999 68
4.2979999 -5.1700001 0.083999999 41
4.322 -5.1359997 0.083999999 49
4.348 -5.1059999 0.083999999 40
4.3660002 -5.066 0.083999999 72
4.3899999 -5.0339999 0.083999999 59
4.4120002 -5 0.083999999 94
4.4359999 -4.9679999 0.083999999 66
4.454 -4.928 0.083999999 94
4.4779997 -4.8959999 0.083999999 67
4.5 -4.8639998 0.083999999 99
4.526 -4.8340001 0.086000003 65
4.546 -4.7979999 0.086000003 102
4.5700002 -4.7660003 0.086000003 63
4.5900002 -4.7320004 0.086000003 103
4.6139998 -4.7020001 0.086000003 66
4.632 -4.664 0.086000003 103
4.6539998 -4.632 0.086000003 69
4.6739998 -4.598 0.086000003 103
4.7079997 -4.5760002 0.086000003 57
4.7600002 -4.5739999 0.086000003 79
4.8179998 -4.5760002 0.086000003 37
4.902 -4.5999999 0.088 44
5.0500002 -4.684 0.090000004 35
5.198 -4.7660003 0.092 60
5.2979999 -4.8000002 0.093999997 39
7.6799998 -6.8759999 0.13600001 89
7.7379999 -6.848 0.13600001 50
7.7779999 -6.802 0.13600001 98
7.8200002 -6.7579999 0.13600001 65
7.848 -6.7020001 0.13600001 104
7.8859997 -6.6540003 0.138 62
7.914 -6.5999999 0.138 103
7.9540005 -6.5540004 0.138 48
8.0320005 -6.54 0.138 65
8.1960001 -6.5940003 0.14 38
11.082 -8.8100004 0.19 46
11.116 -8.7320004 0.19 38
11.15 -8.6520004 0.19 60
11.236 -8.6160002 0.19 34
11.36 -8.6059999 0.192 45
11.51 -8.6140003 0.19399999 19
11.658001 -8.6199999 0.19600001 23
11.79 -8.6099997 0.198 11
0 0 0 2
0 0 0 2
0 0 0 2
20.064001 -13.946 0.33200002 21
20.071999 -13.778001 0.33200002 25
20.128 -13.644 0.33200002 31
20.219999 -13.535999 0.33200002 31
20.321999 -13.434 0.33400002 29
20.41 -13.32 0.33400002 30
20.488001 -13.202 0.33400002 27
20.606001 -13.108001 0.336 23
12.205999 -7.6659999 0.198 26
12.42 -7.698 0.2 20
12.396 -7.5840001 0.2 28
20.821999 -12.574 0.336 35
0 0 0 3
0 0 0 3
16.258001 -9.434 0.25999999 22
16.304001 -9.3340006 0.25999999 19
16.34 -9.2279997 0.25999999 17
0 0 0 2
0 0 0 2
0 0 0 2
0 0 0 2
12.826 -6.7579999 0.20200001 16
12.868 -6.6859999 0.20200001 16
12.94 -6.6279998 0.20200001 15
13.01 -6.5679998 0.204 14
0 0 0 2
0 0 0 2
0 0 0 2
0 0 0 2
0 0 0 2
0 0 0 2
0 0 0 2
0 0 0 2
0 0 0 2
0 0 0 2
13.452 -5.7440004 0.206 18
13.422 -5.638 0.204 14
13.338 -5.5120001 0.204 40
13.29 -5.402 0.20200001 20
13.301999 -5.3179998 0.20200001 26
13.36 -5.25 0.20200001 21
13.394 -5.1740003 0.20200001 29
13.415999 -5.0939999 0.20200001 20
13.444 -5.0139999 0.20200001 35
13.498 -4.9460001 0.204 18
13.58 -4.8860002 0.204 20
13.72 -4.848 0.206 13
13.888 -4.816 0.20799999 15
14.004001 -4.7660003 0.20999999 20
0 0 0 4
0 0 0 4
0 0 0 5
0 0 0 4
0 0 0 3
0 0 0 3
0 0 0 3
0 0 0 3
14.532 -4.112 0.21600001 20
14.51 -4.0139999 0.214 19
14.516 -3.9260001 0.214 20
14.546 -3.842 0.214 19
0 0 0 4
0 0 0 4
0 0 0 5
0 0 0 5
0 0 0 5
0 0 0 5
0 0 0 6
0 0 0 6
0 0 0 5
15.078 -3.0599999 0.22 31
15.112 -2.9760001 0.222 25
15.132 -2.8879998 0.222 20
0 0 0 4
0 0 0 5
0 0 0 5
0 0 0 5
0 0 0 5
0 0 0 5
0 0 0 6
0 0 0 6
0 0 0 7
0 0 0 7
15.811999 -1.982 0.23 39
15.83 -1.892 0.23 44
0 0 0 9
0 0 0 9
0 0 0 9
0 0 0 8
17.164 -1.548 0.248 30
17.174 -1.4480001 0.248 31
0 0 0 5
0 0 0 4
16.358 -1.092 0.236 24
16.360001 -0.99599999 0.236 32
16.374001 -0.90199995 0.236 36
16.298 -0.80199999 0.236 28
16.228001 -0.704 0.234 25
16.134001 -0.60600001 0.23200001 17
16.17 -0.514 0.234 15
16.280001 -0.42400002 0.234 12
16.379999 -0.33000001 0.236 9
16.414 -0.236 0.236 9
16.403999 -0.14 0.236 10
16.476 -0.046 0.236 16
23.033998 0.066 0.33000001 19
22.940001 0.198 0.33000001 23
22.773998 0.32799998 0.32799998 24
22.48 0.45400003 0.324 25
22.266001 0.57800001 0.322 24
22.040001 0.70199996 0.31799999 23
22.008001 0.82800001 0.31799999 24
21.793999 0.94599998 0.31400001 19
21.656 1.066 0.31400001 20
